x,y,z,r,g,b
-4.2388326896529,0.26668474821340626,-4.02,0.9998026241462927,0.2450480916800275,0.12916286878230615
-4.000000000000001,4.898587196589414e-16,-4.0,1.0,0.23354126538114306,0.13854255165455523
-3.745381137773275,-0.23563940802109998,-3.98,0.9998026241462927,0.22219871375652087,0.14818026146218097
-3.5019384932457505,-0.4423977132082348,-3.96,0.9992106913713086,0.21103163053521154,0.15806648694917805
-3.293399339556873,-0.6282495240003622,-3.94,0.9982247858412321,0.2000510362801361,0.1681914716045693
-3.1373907829424104,-0.8055450384795452,-3.92,0.9968458805257912,0.18926776751212118,0.17854522329090436
-3.043380852144492,-0.9888543819998313,-3.9,0.9950753362380551,0.1786924660155612,0.18911752410529173
-3.011689955071381,-1.1924124070275104,-3.88,0.9929149002914757,0.1683355683362615,0.1998979404632374
-3.0336918399319166,-1.4275470200770353,-3.86,0.9903667047754989,0.158207295481828,0.21087583339533167
-3.093162605763324,-1.700480532507099,-3.84,0.9874332644514525,0.14831764283476692,0.2220403690466271
-3.1685823597636853,-2.010843511364008,-3.8200000000000003,0.9841174742707772,0.13867637028824883,0.23338052936834697
-3.23606797749979,-2.3511410091698917,-3.8,0.9804226065180615,0.12929299261427213,0.2448851229913677
-3.2725343202300925,-2.707275835358461,-3.7800000000000002,0.9763523075816902,0.12017677007373201,0.25654279627074994
-3.2586561165513994,-3.0600817784062557,-3.76,0.9719105943553006,0.11133669927766104,0.2683420444904149
-3.1812366174319524,-3.3876729160457253,-3.74,0.9671018502735926,0.10278150430866054,0.28027122321691017
-3.0346769502694353,-3.6682942834500567,-3.7199999999999998,0.9619308209864079,0.09451962811128337,0.29231855979106025
-2.8213692110038715,-3.883281572999747,-3.7,0.9564026096753471,0.08655922415986828,0.3044721649461585
-2.5509884318922422,-4.019714562358989,-3.6799999999999997,0.9505226720175455,0.07890814841204366,0.31672004454123986
-2.238812223967547,-4.072384317327274,-3.66,0.9442968108015775,0.07157395155584756,0.3290501113978478
-1.903330596911077,-4.044783407715913,-3.6399999999999997,0.937731170200806,0.0645638715581085,0.3414501972286222
-1.563503604999704,-3.9489593316407556,-3.62,0.9308322297098248,0.057884826521447025,0.35390806464592867
-1.2360679774997905,-3.804226065180615,-3.5999999999999996,0.9236067977499791,0.05154340785694336,0.3664114192386827
-0.9332800274889189,-3.634885718711202,-3.58,0.9160620049502763,0.04554587377921076,0.3789479217054497
-0.6614132797279697,-3.467249835320163,-3.56,0.9082052971103158,0.03989814313029277,0.39150520003184525
-0.4202155615264289,-3.3263486822718025,-3.54,0.900044427852184,0.034605789538481126,0.40407086170021966
-0.20338821190932663,-3.2327630549063344,-3.52,0.8915874509685648,0.029674035917817365,0.4166325059195772
-5.878304635907295e-16,-3.2,-3.5,0.882842712474619,0.025107749313707118,0.42917773586365904
0.20338821190932246,-3.232763054906333,-3.48,0.8738188423714754,0.02091143609973445,0.4416941709051139
0.42021556152642764,-3.3263486822718016,-3.46,0.8645247461294607,0.01708923753041427,0.45416945883368415
0.6614132797279647,-3.4672498353201604,-3.44,0.8549695958994759,0.013644925654275088,0.4665912880463431
0.9332800274889173,-3.634885718711201,-3.42,0.8451628214611906,0.01058189959130167,0.478947399697364
1.2360679774997887,-3.8042260651806137,-3.4,0.8351141009169893,0.007903182178414658,0.49122559979631863
1.5635036049997062,-3.9489593316407556,-3.38,0.8248333511408521,0.005611416986295037,0.5034137712420744
1.9033305969110794,-4.044783407715912,-3.36,0.8143307179915986,0.0037088657104992874,0.5154998857809102
2.2388122239675505,-4.072384317327275,-3.34,0.8036165663001484,0.0021974059394387346,0.5274720158769508
2.550988431892245,-4.019714562358988,-3.32,0.7927014696406862,0.0010785293014268227,0.5393183464832035
2.8213692110038697,-3.8832815729997483,-3.3,0.7815961998958187,0.0003533399926215708,0.5510271867015851
3.0346769502694344,-3.6682942834500585,-3.2800000000000002,0.7703117166260292,2.2553687317605766e-05,0.5625869813204254
3.1812366174319493,-3.387672916045731,-3.2600000000000002,0.7588591562539124,8.649683166193079e-05,0.5739863222180666
3.258656116551399,-3.060081778406258,-3.24,0.7472498210738714,0.0005451063214910512,0.5852139596213022
3.272534320230091,-2.7072758353584647,-3.22,0.7354951680981168,0.0013979295646071145,0.5962588132075435
3.2360679774997902,-2.351141009169894,-3.2,0.7236067977499789,0.002644124927431735,0.6071099830397626
3.168582359763687,-2.010843511364013,-3.18,0.711596442415692,0.004282462565596834,0.6177567603234128
3.0931626057633257,-1.7004805325070995,-3.16,0.6994759548659419,0.006311325637652354,0.628188637974716
3.033691839931917,-1.4275470200770366,-3.14,0.6872572965586171,0.008728711900693886,0.6383953209898864
3.0116899550713807,-1.19241240702751,-3.12,0.6749525258342899,0.01153223568633437,0.6483667366050558
3.0433808521444914,-0.9888543819998324,-3.1,0.6625737860160924,0.014719130255070835,0.6580930442368754
3.137390782942411,-0.8055450384795451,-3.08,0.6501332934257216,0.018286250526722548,0.6675646451939843
3.293399339556872,-0.6282495240003633,-3.06,0.6376433253274058,0.022230076184244798,0.6767721921497576
3.5019384932457487,-0.44239771320823745,-3.04,0.6251162078117254,0.026546715147857603,0.6857065983669905
3.7453811377732733,-0.2356394080211012,-3.02,0.6125643036312514,0.031231907416057948,0.6943590466654112
3.999999999999999,-9.797174393178824e-16,-3.0,0.6000000000000001,0.036281029269727316,0.7027209981231713
4.2388326896529,0.26668474821340665,-2.98,0.5874356963687486,0.04168909783518391,0.7107842005037329
4.434979117270071,0.5602681553061932,-2.96,0.5748837921882748,0.047450776001677755,0.7185406963998286
4.564898666272637,0.8708009926854319,-2.94,0.5623566746725943,0.053560377688474284,0.725982831086462
4.61127450608664,1.1839740588392889,-2.92,0.5498667065742785,0.060011873456329794,0.7331032600751972
4.565071278216737,1.4832815729997464,-2.9,0.5374262139839077,0.06679889645782011,0.7398949563622823
4.426521932034632,1.7525840144499105,-2.88,0.5250474741657103,0.0739147487206497,0.7463512173634531
4.204924579796241,1.9786873124435462,-2.86,0.512742703441383,0.08135240775774269,0.7524656715285755
3.9172908345875856,2.1535488603066217,-2.84,0.5005240451340582,0.08910453349758854,0.7582322846295952
3.5860410442524335,2.2757708484679626,-2.82,0.4884035575843083,0.0971634755280077,0.7636453657155935
3.236067977499793,2.351141009169894,-2.8,0.47639320225002113,0.1055212806461841,0.7686995727290674
2.8915716219762193,2.3921160826310555,-2.78,0.4645048319018834,0.11416970070751603,0.7733899177778967
2.573092902819893,2.4162950690232536,-2.76,0.45275017892612884,0.12310020076553939,0.7777117720577902
2.2951402299975587,2.444076103325564,-2.7399999999999998,0.44114084374608786,0.1323039674948893,0.7816608704203576
2.064714967720081,2.4958116587562573,-2.7199999999999998,0.42968828337397097,0.1417719178889883,0.7852333155822957
1.880912807335915,2.5888543819998313,-2.6999999999999997,0.4184038001041813,0.15149470822387645,0.7884255819715356
1.7356259279397281,2.734908841657132,-2.6799999999999997,0.40729853035931385,0.1614627432793405,0.7912345192065584
1.6152171688461754,2.9380691230236344,-2.6599999999999997,0.3963834336998515,0.17166618580823548,0.7936573552054403
1.5029037356095014,3.1938330120122393,-2.64,0.38566928200840145,0.18209496624466226,0.7956916989215629
1.381492816477721,3.4892525554652516,-2.62,0.3751666488591479,0.19273879264141205,0.7973355427032877
1.2360679774997905,3.804226065180613,-2.6,0.36488589908301083,0.20358716082687592,0.7985872642752657
1.0562390698299244,4.113779570317848,-2.58,0.35483717853880953,0.21462936477139427,0.7994456283394277
0.8376372369578315,4.391048170509349,-2.56,0.34503040410052416,0.22585450715281521,0.7999097877940737
0.5824503069880085,4.61056892824402,-2.54,0.33547525387053934,0.23725151011083617,0.7999792845698608
0.2989359443251825,4.751450772519839,-2.52,0.3261811576285245,0.24880912617951473,0.7996540500818617
1.469576158976824e-15,4.8,-2.5,0.317157287525381,0.26051594938715844,0.79893440529725
-0.29893594432517967,4.751450772519841,-2.48,0.3084125490314355,0.27236042651264347,0.7978210604185444
-0.5824503069880059,4.610568928244023,-2.46,0.2999555721478162,0.2843308684870484,0.7963151141827244
-0.8376372369578328,4.391048170509349,-2.44,0.2917947028896843,0.2964154619293528,0.7944180527769096
-1.056239069829922,4.113779570317848,-2.42,0.28393799504972383,0.3086022808048201,0.7921317483716726
-1.236067977499788,3.804226065180613,-2.4,0.27639320225002106,0.32087929819455263,0.7894584572734324
-1.3814928164777174,3.4892525554652583,-2.38,0.26916777029017536,0.3332343981646091,0.7864008176977527
-1.502903735609502,3.1938330120122385,-2.36,0.2622688297991939,0.34565538772296867,0.7829618471657412
-1.615217168846176,2.938069123023633,-2.34,0.2557031891984225,0.3581300088525407,0.7791449395261218
-1.7356259279397286,2.7349088416571314,-2.32,0.2494773279824546,0.37064595060835,0.7749538616059128
-1.8809128073359134,2.5888543819998326,-2.3,0.24359739032465288,0.38319086126695157,0.7703927494930276
-2.0647149677200853,2.495811658756257,-2.28,0.2380691790135921,0.3957523605160911,0.7654661044544508
-2.295140229997559,2.444076103325563,-2.26,0.23289814972640752,0.40831805167257706,0.7601787884940353
-2.5730929028198943,2.416295069023253,-2.2399999999999998,0.22808940564469943,0.4208755339163128,0.7545360195542883
-2.891571621976224,2.392116082631059,-2.2199999999999998,0.22364769241830984,0.43341241452840695,0.7485433663668936
-3.236067977499788,2.3511410091698925,-2.1999999999999997,0.2195773934819386,0.44591632112129115,0.7422067429570453
-3.586041044252428,2.2757708484679626,-2.18,0.21588252572922284,0.4583749138487734,0.7355324028070193
-3.917290834587578,2.1535488603066257,-2.16,0.21256673554854763,0.4707758975839756,0.7285269326847406
-4.204924579796235,1.9786873124435513,-2.14,0.20963329522450114,0.48310703405314004,0.7211972461434393
-4.426521932034626,1.75258401444992,-2.12,0.20708509970852462,0.49535615391332793,0.713550576698808
-4.565071278216736,1.4832815729997493,-2.1,0.20492466376194496,0.5075111687620916,0.7055944706903943
-4.61127450608664,1.1839740588392962,-2.08,0.20315411947420892,0.5195600830672674,0.6973367798342776
-4.564898666272638,0.8708009926854392,-2.06,0.201775214158768,0.5314910060051198,0.688785653474368
-4.434979117270078,0.560268155306205,-2.04,0.20078930862869138,0.5432921631951465,0.6799495305399947
-4.2388326896529,0.26668474821340543,-2.02,0.20019737585370737,0.5549519083199724,0.670837131217694
-4.000000000000004,1.4695761589768253e-15,-2.0,0.2,0.5664587346188569,0.6614574483454448
-3.745381137773276,-0.2356394080210991,-1.98,0.20019737585370737,0.577801286243479,0.651819738537819
-3.501938493245752,-0.44239771320823257,-1.96,0.20078930862869138,0.5889683694647884,0.641933513050822
-3.293399339556876,-0.6282495240003588,-1.94,0.20177521415876798,0.5999489637198637,0.6318085283954308
-3.1373907829424095,-0.8055450384795457,-1.92,0.20315411947420886,0.6107322324878788,0.6214547767090954
-3.043380852144492,-0.9888543819998307,-1.9,0.2049246637619449,0.6213075339844387,0.6108824758947087
-3.0116899550713816,-1.192412407027508,-1.88,0.2070850997085245,0.6316644316637385,0.6001020595367624
-3.0336918399319153,-1.4275470200770304,-1.8599999999999999,0.209633295224501,0.6417927045181719,0.589124166604669
-3.0931626057633252,-1.7004805325071004,-1.8399999999999999,0.21256673554854758,0.651682357165233,0.5779596309533729
-3.168582359763684,-2.010843511364008,-1.8199999999999998,0.21588252572922279,0.6613236297117512,0.5666194706316532
-3.2360679774997894,-2.3511410091698903,-1.7999999999999998,0.21957739348193855,0.6707070073857279,0.5551148770086324
-3.272534320230094,-2.707275835358458,-1.7799999999999998,0.22364769241830978,0.679823229926268,0.5434572037292501
-3.2586561165513985,-3.060081778406259,-1.7599999999999998,0.2280894056446995,0.6886633007223391,0.5316579555095852
-3.1812366174319515,-3.3876729160457293,-1.7399999999999998,0.2328981497264076,0.6972184956913395,0.5197287767830893
-3.034676950269436,-3.6682942834500563,-1.7199999999999998,0.23806917901359217,0.7054803718887167,0.5076814402089401
-2.8213692110038724,-3.8832815729997465,-1.6999999999999997,0.2435973903246528,0.7134407758401318,0.49552783505384124
-2.550988431892239,-4.01971456235899,-1.6799999999999997,0.24947732798245467,0.7210918515879563,0.48327995545876024
-2.238812223967544,-4.072384317327275,-1.6599999999999997,0.25570318919842266,0.7284260484441525,0.4709498886021523
-1.9033305969110792,-4.044783407715915,-1.6399999999999997,0.262268829799194,0.7354361284418914,0.45854980277137786
-1.563503604999705,-3.948959331640756,-1.6199999999999997,0.2691677702901753,0.742115173478553,0.4460919353540715
-1.236067977499791,-3.8042260651806123,-1.5999999999999996,0.276393202250021,0.7484565921430566,0.4335885807613174
-0.9332800274889124,-3.634885718711199,-1.5799999999999996,0.283937995049724,0.7544541262207893,0.4210520782945504
-0.6614132797279711,-3.467249835320166,-1.5600000000000005,0.2917947028896842,0.7601018568697072,0.4084947999681548
-0.420215561526433,-3.3263486822718042,-1.54,0.299955572147816,0.7653942104615189,0.3959291382997804
-0.2033882119093303,-3.2327630549063344,-1.5200000000000005,0.30841254903143517,0.7703259640821827,0.383367494080423
-1.3716044150450357e-15,-3.2,-1.5,0.31715728752538097,0.774892250686293,0.3708222641363414
0.20338821190932166,-3.2327630549063326,-1.4800000000000004,0.3261811576285244,0.7790885639002655,0.35830582909488573
0.42021556152642336,-3.326348682271798,-1.46,0.3354752538705391,0.7829107624695857,0.3458305411663167
0.6614132797279603,-3.4672498353201586,-1.4400000000000004,0.3450304041005239,0.7863550743457248,0.333408711953657
0.9332800274889169,-3.634885718711203,-1.42,0.3548371785388094,0.7894181004086983,0.32105260030263616
1.2360679774997876,-3.8042260651806132,-1.4000000000000004,0.36488589908301067,0.7920968178215854,0.30877440020368147
1.5635036049996993,-3.9489593316407516,-1.38,0.37516664885914763,0.794388583013705,0.2965862287579257
1.9033305969110739,-4.044783407715912,-1.3600000000000003,0.38566928200840117,0.7962911342895007,0.28450011421908983
2.23881222396754,-4.072384317327276,-1.3399999999999999,0.39638343369985124,0.7978025940605612,0.27252798412304957
2.550988431892243,-4.019714562358987,-1.3200000000000003,0.4072985303593139,0.7989214706985732,0.2606816535167969
2.8213692110038693,-3.8832815729997487,-1.2999999999999998,0.4184038001041812,0.7996466600073785,0.2489728132984147
3.034676950269434,-3.66829428345006,-1.2800000000000002,0.4296882833739708,0.7999774463126825,0.237413018679575
3.181236617431949,-3.387672916045732,-1.2599999999999998,0.44114084374608753,0.7999135031683381,0.22601367778193318
3.2586561165513985,-3.0600817784062535,-1.2400000000000002,0.45275017892612884,0.799454893678509,0.21478604037869797
3.2725343202300916,-2.707275835358461,-1.2199999999999998,0.46450483190188346,0.7986020704353929,0.20374118679245667
3.236067977499792,-2.3511410091698965,-1.2000000000000002,0.47639320225002096,0.7973558750725683,0.1928900169602375
3.1685823597636875,-2.010843511364014,-1.1799999999999997,0.4884035575843082,0.7957175374344033,0.18224323967658732
3.0931626057633235,-1.7004805325070957,-1.1600000000000001,0.5005240451340582,0.7936886743623476,0.17181136202528347
3.033691839931917,-1.4275470200770344,-1.1399999999999997,0.5127427034413831,0.7912712880993062,0.1616046790101137
3.0116899550713807,-1.1924124070275108,-1.12,0.5250474741657101,0.7884677643136655,0.1516332633949439
3.043380852144491,-0.9888543819998333,-1.0999999999999996,0.5374262139839076,0.7852808697449293,0.14190695576312493
3.1373907829424086,-0.8055450384795483,-1.08,0.5498667065742782,0.7817137494732775,0.13243535480601581
3.293399339556875,-0.6282495240003616,-1.0599999999999996,0.5623566746725944,0.7777699238157553,0.1232278078502426
3.501938493245751,-0.44239771320823545,-1.04,0.5748837921882748,0.7734532848521424,0.11429340163300945
3.7453811377732698,-0.23563940802110192,-1.0199999999999996,0.5874356963687486,0.7687680925839421,0.10564095333458892
3.9999999999999982,-1.9594348786357643e-15,-1.0,0.5999999999999999,0.7637189707302728,0.09727900187682877
4.238832689652904,0.2666847482134096,-0.9799999999999995,0.6125643036312516,0.7583109021648158,0.0892157994962667
4.434979117270074,0.5602681553062004,-0.96,0.6251162078117255,0.7525492239983222,0.08145930360017149
4.564898666272639,0.8708009926854353,-0.9399999999999995,0.6376433253274058,0.7464396223115255,0.07401716891353764
4.611274506086639,1.1839740588392829,-0.9199999999999999,0.6501332934257213,0.7399881265436703,0.06689673992480287
4.565071278216738,1.4832815729997453,-0.9000000000000004,0.6625737860160923,0.7332011035421797,0.06010504363771756
4.426521932034633,1.7525840144499099,-0.8799999999999999,0.6749525258342897,0.7260852512793505,0.05364878263654718
4.204924579796244,1.978687312443542,-0.8600000000000003,0.6872572965586168,0.7186475922422574,0.04753432847142456
3.9172908345875888,2.1535488603066177,-0.8399999999999999,0.6994759548659416,0.7108954665024121,0.04176771537040511
3.586041044252448,2.2757708484679626,-0.8200000000000003,0.7115964424156913,0.7028365244719924,0.0363546342844066
3.23606797749979,2.3511410091698903,-0.7999999999999998,0.7236067977499789,0.694478719353816,0.03130042727093261
2.891571621976231,2.39211608263106,-0.7800000000000002,0.7354951680981163,0.6858302992924841,0.02661008222210333
2.5730929028198997,2.4162950690232545,-0.7599999999999998,0.747249821073871,0.6768997992344608,0.022288227942209773
2.295140229997564,2.4440761033255645,-0.7400000000000002,0.758859156253912,0.6676960325051108,0.018339129579642368
2.064714967720083,2.4958116587562587,-0.7199999999999998,0.7703117166260289,0.6582280821110115,0.014766684417704345
1.8809128073359156,2.588854381999831,-0.7000000000000002,0.7815961998958187,0.6485052917761239,0.011574418028464617
1.7356259279397308,2.73490884165713,-0.6799999999999997,0.792701469640686,0.6385372567206596,0.008765480793441595
1.6152171688461785,2.9380691230236318,-0.6600000000000001,0.8036165663001484,0.6283338141917651,0.00634264479455986
1.502903735609501,3.1938330120122433,-0.6399999999999997,0.8143307179915986,0.6179050337553378,0.004308301078437138
1.3814928164777203,3.489252555465257,-0.6200000000000001,0.8248333511408521,0.607261207358588,0.0026644572967123637
1.2360679774997894,3.804226065180606,-0.5999999999999996,0.8351141009169891,0.5964128391731242,0.0014127357247343487
1.056239069829924,4.113779570317842,-0.5800000000000001,0.8451628214611906,0.5853706352286058,0.0005543716605723948
0.8376372369578297,4.391048170509355,-0.5599999999999996,0.8549695958994759,0.5741454928471849,9.021220592630996e-05
0.5824503069880054,4.610568928244019,-0.54,0.8645247461294607,0.5627484898891633,2.0715430139217617e-05
0.2989359443251836,4.7514507725198385,-0.5199999999999996,0.8738188423714754,0.5511908738204857,0.0003459499181382775
2.645237086158283e-15,4.8,-0.5,0.882842712474619,0.5394840506128413,0.0010655947027499834
-0.29893594432517845,4.751450772519839,-0.47999999999999954,0.8915874509685646,0.5276395734873569,0.0021789395814555412
-0.5824503069880086,4.61056892824402,-0.45999999999999996,0.900044427852184,0.5156691315129517,0.0036848858172756852
-0.837637236957831,4.391048170509346,-0.4399999999999995,0.9082052971103158,0.5035845380706473,0.005581947223090512
-1.0562390698299224,4.113779570317855,-0.41999999999999993,0.9160620049502761,0.49139771919517994,0.007868251628327494
-1.2360679774997891,3.80422606518062,-0.39999999999999947,0.9236067977499789,0.47912070180544747,0.010541542726567644
-1.3814928164777192,3.489252555465247,-0.3799999999999999,0.9308322297098248,0.46676560183539095,0.013599182302247305
-1.5029037356095036,3.193833012012244,-0.35999999999999943,0.9377311702008062,0.4543446122770311,0.01703815283425878
-1.6152171688461754,2.938069123023634,-0.33999999999999986,0.9442968108015775,0.44186999114745973,0.020855060473878285
-1.7356259279397281,2.734908841657132,-0.3199999999999994,0.9505226720175455,0.42935404939164973,0.025046138394087203
-1.8809128073359127,2.588854381999833,-0.3000000000000007,0.9564026096753471,0.4168091387330489,0.029607250506972396
-2.064714967720078,2.4958116587562578,-0.28000000000000025,0.9619308209864077,0.404247639483909,0.034533895545549156
-2.2951402299975516,2.4440761033255654,-0.2599999999999998,0.9671018502735924,0.3916819483274237,0.03982121150596436
-2.5730929028198855,2.4162950690232545,-0.2400000000000002,0.9719105943553006,0.3791244660836873,0.04546398044571172
-2.8915716219762144,2.3921160826310603,-0.22000000000000064,0.97635230758169,0.36658758547159387,0.05145663363310607
-3.2360679774997867,2.351141009169893,-0.20000000000000018,0.9804226065180615,0.3540836788787089,0.05779325704295468
-3.5860410442524313,2.275770848467966,-0.17999999999999972,0.9841174742707772,0.3416250861512267,0.06446759719298077
-3.9172908345875808,2.1535488603066284,-0.16000000000000014,0.9874332644514525,0.3292241024160245,0.07147306731525949
-4.204924579796232,1.9786873124435507,-0.14000000000000057,0.9903667047754989,0.31689296594686006,0.07880275385656077
-4.42652193203463,1.7525840144499145,-0.1200000000000001,0.9929149002914754,0.3046438460866722,0.08644942330119215
-4.565071278216736,1.4832815729997504,-0.09999999999999964,0.9950753362380551,0.29248883123790814,0.09440552930960583
-4.611274506086639,1.1839740588392973,-0.08000000000000007,0.9968458805257912,0.2804399169327329,0.10266322016572245
-4.564898666272639,0.8708009926854405,-0.0600000000000005,0.9982247858412321,0.26850899399488004,0.11121434652563199
-4.434979117270075,0.5602681553061976,-0.040000000000000036,0.9992106913713086,0.25670783680485326,0.12005046946000575
-4.2388326896529005,0.2666847482134065,-0.019999999999999574,0.9998026241462927,0.2450480916800276,0.12916286878230607
-3.9999999999999996,2.449293598294706e-15,0.0,1.0,0.23354126538114317,0.13854255165455515
-3.745381137773272,-0.23563940802109787,0.019999999999999574,0.9998026241462927,0.22219871375652095,0.14818026146218086
-3.5019384932457567,-0.44239771320823235,0.040000000000000036,0.9992106913713086,0.21103163053521162,0.15806648694917796
-3.2933993395568684,-0.6282495240003627,0.0600000000000005,0.9982247858412321,0.20005103628013632,0.1681914716045692
-3.1373907829424112,-0.8055450384795454,0.08000000000000007,0.9968458805257912,0.18926776751212096,0.17854522329090453
-3.0433808521444905,-0.9888543819998352,0.09999999999999964,0.9950753362380551,0.178692466015561,0.18911752410529195
-3.01168995507138,-1.1924124070275126,0.1200000000000001,0.9929149002914754,0.1683355683362613,0.1998979404632376
-3.0336918399319153,-1.4275470200770362,0.14000000000000057,0.9903667047754989,0.15820729548182794,0.21087583339533156
-3.093162605763325,-1.7004805325070993,0.16000000000000014,0.9874332644514525,0.14831764283476698,0.22204036904662702
-3.1685823597636884,-2.01084351136401,0.17999999999999972,0.9841174742707772,0.13867637028824895,0.23338052936834686
-3.236067977499794,-2.3511410091698925,0.20000000000000018,0.9804226065180615,0.12929299261427216,0.2448851229913676
-3.2725343202300894,-2.707275835358453,0.22000000000000064,0.9763523075816902,0.12017677007373209,0.25654279627074983
-3.2586561165514007,-3.0600817784062486,0.2400000000000002,0.9719105943553008,0.11133669927766127,0.26834204449041477
-3.1812366174319484,-3.387672916045736,0.2599999999999998,0.9671018502735924,0.10278150430866023,0.2802712232169107
-3.034676950269432,-3.6682942834500625,0.28000000000000025,0.9619308209864077,0.09451962811128323,0.29231855979106053
-2.8213692110038666,-3.883281572999751,0.3000000000000007,0.9564026096753471,0.08655922415986811,0.3044721649461587
-2.550988431892241,-4.019714562358991,0.3200000000000003,0.9505226720175455,0.07890814841204374,0.3167200445412397
-2.238812223967545,-4.072384317327274,0.33999999999999986,0.9442968108015775,0.07157395155584766,0.3290501113978477
-1.9033305969110785,-4.0447834077159115,0.3600000000000003,0.937731170200806,0.06456387155810854,0.34145019722862213
-1.5635036049997044,-3.948959331640752,0.3800000000000008,0.9308322297098248,0.057884826521447066,0.3539080646459285
-1.2360679774997938,-3.8042260651806186,0.40000000000000036,0.9236067977499791,0.051543407856943446,0.36641141923868265
-0.9332800274889211,-3.634885718711203,0.41999999999999993,0.9160620049502763,0.0455458737792108,0.37894792170544966
-0.6614132797279573,-3.4672498353201555,0.4400000000000004,0.9082052971103154,0.039898143130292496,0.39150520003184586
-0.42021556152642087,-3.3263486822717963,0.46000000000000085,0.9000444278521835,0.034605789538480904,0.4040708617002203
-0.20338821190931952,-3.2327630549063335,0.4800000000000004,0.8915874509685644,0.029674035917817143,0.4166325059195778
3.52896351958146e-15,-3.2,0.5,0.8828427124746188,0.02510774931370703,0.4291777358636593
0.2033882119093267,-3.2327630549063344,0.5200000000000005,0.8738188423714754,0.02091143609973436,0.4416941709051142
0.4202155615264292,-3.326348682271804,0.5400000000000009,0.8645247461294607,0.017089237530414313,0.45416945883368404
0.6614132797279672,-3.4672498353201657,0.5600000000000005,0.8549695958994759,0.013644925654275088,0.466591288046343
0.9332800274889144,-3.634885718711197,0.5800000000000001,0.8451628214611906,0.010581899591301715,0.4789473996973639
1.2360679774997863,-3.8042260651806123,0.6000000000000005,0.8351141009169893,0.007903182178414703,0.4912255997963185
1.5635036049997184,-3.9489593316407614,0.620000000000001,0.8248333511408519,0.005611416986294949,0.5034137712420751
1.9033305969110705,-4.044783407715908,0.6399999999999997,0.8143307179915988,0.0037088657104992874,0.5154998857809101
2.238812223967537,-4.072384317327273,0.6599999999999993,0.8036165663001489,0.0021974059394387793,0.5274720158769504
2.5509884318922342,-4.019714562358992,0.6799999999999997,0.7927014696406864,0.0010785293014268671,0.5393183464832031
2.8213692110038613,-3.8832815729997545,0.6999999999999993,0.7815961998958192,0.0003533399926215708,0.5510271867015847
3.034676950269427,-3.668294283450066,0.7199999999999998,0.7703117166260296,2.2553687317605766e-05,0.562586981320425
3.1812366174319475,-3.387672916045744,0.7399999999999993,0.7588591562539129,8.649683166193079e-05,0.5739863222180661
3.2586561165513976,-3.0600817784062757,0.7599999999999998,0.7472498210738718,0.0005451063214910068,0.5852139596213014
3.2725343202300916,-2.7072758353584625,0.7799999999999994,0.7354951680981168,0.0013979295646071145,0.5962588132075434
3.236067977499788,-2.3511410091698948,0.7999999999999998,0.7236067977499792,0.002644124927431735,0.6071099830397625
3.1685823597636924,-2.0108435113640186,0.8199999999999994,0.711596442415692,0.00428246256559679,0.6177567603234128
3.093162605763329,-1.7004805325071068,0.8399999999999999,0.6994759548659422,0.006311325637652354,0.6281886379747159
3.0336918399319175,-1.4275470200770422,0.8599999999999994,0.6872572965586174,0.008728711900693843,0.6383953209898863
3.0116899550713803,-1.1924124070275177,0.8799999999999999,0.6749525258342903,0.011532235686334281,0.6483667366050555
3.043380852144489,-0.9888543819998393,0.8999999999999995,0.6625737860160928,0.014719130255070746,0.6580930442368751
3.1373907829424033,-0.8055450384795537,0.9199999999999999,0.6501332934257222,0.018286250526722326,0.6675646451939836
3.2933993395568617,-0.6282495240003722,0.9399999999999995,0.6376433253274063,0.02223007618424453,0.6767721921497569
3.50193849324575,-0.4423977132082362,0.96,0.6251162078117254,0.026546715147857558,0.6857065983669905
3.745381137773274,-0.2356394080211031,0.9799999999999995,0.6125643036312514,0.031231907416057903,0.694359046665411
3.9999999999999916,-2.939152317953641e-15,1.0,0.6000000000000002,0.036281029269727275,0.7027209981231712
4.2388326896528925,0.2666847482134003,1.0199999999999996,0.5874356963687489,0.04168909783518387,0.7107842005037329
4.434979117270069,0.5602681553061909,1.04,0.574883792188275,0.047450776001677714,0.7185406963998285
4.564898666272637,0.8708009926854254,1.0599999999999996,0.5623566746725946,0.053560377688474194,0.725982831086462
4.611274506086641,1.1839740588392822,1.08,0.5498667065742788,0.060011873456329745,0.7331032600751972
4.565071278216741,1.483281572999736,1.0999999999999996,0.5374262139839081,0.06679889645781989,0.7398949563622821
4.426521932034638,1.7525840144499014,1.12,0.5250474741657107,0.07391474872064943,0.7463512173634529
4.204924579796239,1.9786873124435473,1.1399999999999997,0.512742703441383,0.0813524077577426,0.7524656715285755
3.917290834587582,2.153548860306622,1.1600000000000001,0.5005240451340581,0.0891045334975885,0.7582322846295952
3.586041044252441,2.2757708484679657,1.1799999999999997,0.4884035575843084,0.09716347552800766,0.7636453657155935
3.2360679774997965,2.3511410091698934,1.2000000000000002,0.47639320225002124,0.105521280646184,0.7686995727290674
2.8915716219762277,2.3921160826310564,1.2199999999999998,0.46450483190188363,0.11416970070751593,0.7733899177778967
2.573092902819898,2.4162950690232514,1.2400000000000002,0.4527501789261291,0.12310020076553935,0.7777117720577902
2.2951402299975627,2.4440761033255614,1.2599999999999998,0.4411408437460881,0.1323039674948892,0.7816608704203576
2.0647149677200893,2.495811658756256,1.2800000000000002,0.42968828337397136,0.141771917888988,0.7852333155822955
1.8809128073359116,2.588854381999834,1.2999999999999998,0.41840380010418116,0.15149470822387667,0.7884255819715356
1.7356259279397277,2.734908841657134,1.3200000000000003,0.4072985303593138,0.1614627432793404,0.7912345192065584
1.6152171688461752,2.938069123023636,1.3399999999999999,0.39638343369985146,0.1716661858082354,0.7936573552054403
1.5029037356094994,3.193833012012238,1.3600000000000003,0.3856692820084014,0.18209496624466218,0.7956916989215629
1.381492816477719,3.4892525554652507,1.38,0.37516664885914786,0.19273879264141197,0.7973355427032877
1.2360679774997918,3.80422606518061,1.4000000000000004,0.3648858990830109,0.20358716082687583,0.7985872642752657
1.056239069829926,4.1137795703178455,1.42,0.3548371785388096,0.21462936477139416,0.7994456283394277
0.8376372369578374,4.391048170509347,1.4400000000000004,0.3450304041005244,0.22585450715281513,0.7999097877940737
0.5824503069880143,4.610568928244015,1.46,0.33547525387053956,0.2372515101108361,0.7999792845698608
0.29893594432517645,4.75145077251984,1.4800000000000004,0.32618115762852434,0.248809126179515,0.7996540500818616
-4.70561481578146e-15,4.8,1.5,0.31715728752538086,0.26051594938715866,0.79893440529725
-0.2989359443251856,4.751450772519838,1.5200000000000005,0.30841254903143533,0.27236042651264375,0.7978210604185444
-0.5824503069880079,4.6105689282440245,1.54,0.2999555721478162,0.28433086848704825,0.7963151141827244
-0.837637236957831,4.391048170509351,1.5600000000000005,0.29179470288968434,0.2964154619293527,0.7944180527769096
-1.0562390698299204,4.113779570317851,1.58,0.28393799504972395,0.30860228080482,0.7921317483716726
-1.2360679774997867,3.8042260651806155,1.6000000000000005,0.2763932022500211,0.3208792981945525,0.7894584572734324
-1.3814928164777145,3.4892525554652556,1.62,0.2691677702901754,0.333234398164609,0.7864008176977527
-1.502903735609503,3.19383301201223,1.6400000000000006,0.26226882979919375,0.3456553877229689,0.7829618471657414
-1.615217168846179,2.9380691230236295,1.6600000000000001,0.2557031891984224,0.358130008852541,0.7791449395261216
-1.7356259279397317,2.7349088416571283,1.6800000000000006,0.24947732798245445,0.37064595060835026,0.7749538616059128
-1.8809128073359167,2.5888543819998304,1.7000000000000002,0.24359739032465277,0.3831908612669518,0.7703927494930274
-2.0647149677200822,2.4958116587562555,1.7200000000000006,0.23806917901359215,0.3957523605160909,0.7654661044544508
-2.2951402299975574,2.4440761033255636,1.7400000000000002,0.23289814972640754,0.40831805167257695,0.7601787884940354
-2.5730929028198917,2.416295069023253,1.7600000000000007,0.22808940564469948,0.4208755339163127,0.7545360195542884
-2.8915716219762215,2.3921160826310586,1.7800000000000002,0.22364769241830987,0.43341241452840684,0.7485433663668937
-3.23606797749979,2.351141009169897,1.8000000000000007,0.21957739348193864,0.4459163211212911,0.7422067429570455
-3.5860410442524513,2.2757708484679626,1.8200000000000003,0.21588252572922265,0.458374913848774,0.7355324028070189
-3.9172908345875923,2.1535488603066173,1.8400000000000007,0.21256673554854744,0.47077589758397614,0.7285269326847401
-4.204924579796247,1.978687312443541,1.8600000000000003,0.209633295224501,0.48310703405314065,0.7211972461434389
-4.426521932034622,1.7525840144499214,1.879999999999999,0.20708509970852462,0.49535615391332777,0.713550576698808
-4.565071278216733,1.4832815729997595,1.8999999999999995,0.204924663761945,0.5075111687620911,0.7055944706903947
-4.611274506086639,1.183974058839307,1.92,0.20315411947420894,0.519560083067267,0.6973367798342777
-4.564898666272641,0.8708009926854504,1.9399999999999995,0.20177521415876806,0.5314910060051193,0.6887856534743686
-4.434979117270077,0.5602681553062151,1.959999999999999,0.20078930862869143,0.5432921631951461,0.6799495305399947
-4.2388326896529165,0.2666847482134237,1.9799999999999995,0.20019737585370742,0.5549519083199718,0.6708371312176946
-4.000000000000006,3.4290110376125944e-15,2.0,0.2,0.5664587346188569,0.661457448345445
-3.745381137773278,-0.23563940802109737,2.0199999999999996,0.20019737585370737,0.577801286243479,0.6518197385378192
-3.501938493245753,-0.44239771320823096,2.039999999999999,0.20078930862869138,0.5889683694647884,0.6419335130508221
-3.2933993395568804,-0.6282495240003582,2.0599999999999996,0.20177521415876798,0.5999489637198637,0.6318085283954309
-3.1373907829424152,-0.8055450384795396,2.08,0.2031541194742088,0.6107322324878784,0.6214547767090961
-3.0433808521444945,-0.9888543819998237,2.0999999999999996,0.20492466376194485,0.6213075339844384,0.6108824758947087
-3.011689955071382,-1.1924124070275004,2.119999999999999,0.20708509970852443,0.6316644316637382,0.6001020595367632
-3.033691839931917,-1.4275470200770228,2.1399999999999997,0.20963329522450092,0.6417927045181715,0.589124166604669
-3.093162605763329,-1.7004805325071004,2.16,0.21256673554854755,0.651682357165233,0.577959630953373
-3.168582359763684,-2.0108435113640057,2.1799999999999997,0.21588252572922273,0.6613236297117511,0.5666194706316533
-3.236067977499789,-2.3511410091698877,2.1999999999999993,0.2195773934819385,0.6707070073857277,0.5551148770086324
-3.2725343202300934,-2.707275835358455,2.2199999999999998,0.22364769241830973,0.679823229926268,0.5434572037292502
-3.2586561165513976,-3.060081778406244,2.24,0.22808940564469934,0.6886633007223388,0.5316579555095853
-3.1812366174319537,-3.3876729160457164,2.26,0.23289814972640738,0.6972184956913393,0.51972877678309
-3.034676950269443,-3.6682942834500474,2.2799999999999994,0.238069179013592,0.7054803718887164,0.5076814402089402
-2.8213692110038813,-3.8832815729997403,2.3,0.24359739032465264,0.7134407758401315,0.49552783505384207
-2.5509884318922578,-4.019714562358983,2.3200000000000003,0.24947732798245426,0.7210918515879559,0.483279955458761
-2.2388122239675443,-4.072384317327272,2.34,0.25570318919842255,0.7284260484441524,0.47094988860215237
-1.9033305969110819,-4.044783407715916,2.3599999999999994,0.26226882979919397,0.7354361284418914,0.4585498027713779
-1.5635036049997078,-3.9489593316407574,2.38,0.26916777029017525,0.7421151734785529,0.44609193535407154
-1.2360679774997934,-3.804226065180614,2.4000000000000004,0.27639320225002095,0.7484565921430566,0.4335885807613175
-0.9332800274889237,-3.6348857187112094,2.42,0.2839379950497237,0.7544541262207892,0.4210520782945505
-0.6614132797279731,-3.4672498353201675,2.4399999999999995,0.2917947028896841,0.7601018568697072,0.4084947999681549
-0.4202155615264348,-3.326348682271805,2.46,0.299955572147816,0.7653942104615189,0.3959291382997805
-0.2033882119093319,-3.232763054906335,2.4800000000000004,0.3084125490314351,0.7703259640821826,0.38336749408042303
-8.62349420403445e-15,-3.2,2.5,0.31715728752538064,0.7748922506862927,0.37082226413634145
0.203388211909326,-3.2327630549063358,2.5199999999999996,0.3261811576285246,0.7790885639002657,0.3583058290948859
0.42021556152642797,-3.3263486822718,2.54,0.3354752538705393,0.7829107624695857,0.34583054116631606
0.6614132797279653,-3.4672498353201604,2.5600000000000005,0.3450304041005241,0.786355074345725,0.33340871195365707
0.9332800274889147,-3.634885718711202,2.58,0.35483717853880936,0.7894181004086983,0.3210526003026362
1.2360679774997834,-3.8042260651806066,2.5999999999999996,0.3648858990830106,0.7920968178215854,0.3087744002036816
1.5635036049996969,-3.948959331640751,2.62,0.3751666488591476,0.794388583013705,0.29658622875792573
1.903330596911071,-4.0447834077159115,2.6400000000000006,0.3856692820084011,0.7962911342895007,0.2845001142190899
2.2388122239675377,-4.072384317327277,2.66,0.39638343369985113,0.7978025940605612,0.272527984123049
2.55098843189225,-4.019714562358987,2.6799999999999997,0.4072985303593141,0.7989214706985732,0.2606816535167957
2.821369211003874,-3.8832815729997447,2.7,0.41840380010418143,0.7996466600073785,0.24897281329841478
3.0346769502694384,-3.6682942834500554,2.7200000000000006,0.429688283373971,0.7999774463126825,0.2374130186795751
3.181236617431952,-3.3876729160457266,2.74,0.4411408437460878,0.7999135031683381,0.22601367778193326
3.2586561165513976,-3.0600817784062553,2.76,0.4527501789261288,0.799454893678509,0.21478604037869742
3.2725343202300956,-2.7072758353584674,2.7800000000000002,0.4645048319018834,0.7986020704353929,0.2037411867924567
3.2360679774997934,-2.3511410091698997,2.8000000000000007,0.47639320225002085,0.7973558750725683,0.19289001696023816
3.1685823597636884,-2.010843511364017,2.8200000000000003,0.4884035575843081,0.7957175374344033,0.18224323967658737
3.093162605763325,-1.7004805325071057,2.84,0.5005240451340578,0.7936886743623477,0.17181136202528358
3.0336918399319135,-1.4275470200770282,2.8600000000000003,0.5127427034413833,0.7912712880993061,0.16160467901011263
3.0116899550713794,-1.1924124070275057,2.880000000000001,0.5250474741657104,0.7884677643136656,0.15163326339494398
3.0433808521444927,-0.9888543819998294,2.9000000000000004,0.5374262139839079,0.7852808697449292,0.141906955763125
3.137390782942411,-0.8055450384795446,2.92,0.5498667065742784,0.7817137494732775,0.1324353548060159
3.2933993395568737,-0.628249524000363,2.9400000000000004,0.5623566746725943,0.7777699238157553,0.12322780785024215
3.5019384932457442,-0.4423977132082364,2.960000000000001,0.5748837921882746,0.7734532848521425,0.11429340163300955
3.745381137773268,-0.23563940802110364,2.9800000000000004,0.5874356963687486,0.7687680925839422,0.1056409533345895
3.999999999999996,-3.918869757271526e-15,3.0,0.5999999999999999,0.7637189707302728,0.09727900187682881
4.238832689652907,0.26668474821341526,3.0199999999999996,0.6125643036312518,0.7583109021648159,0.08921579949626675
4.434979117270079,0.5602681553062071,3.040000000000001,0.6251162078117258,0.752549223998322,0.08145930360017069
4.564898666272644,0.8708009926854422,3.0600000000000005,0.6376433253274061,0.7464396223115255,0.07401716891353774
4.611274506086638,1.183974058839298,3.08,0.6501332934257219,0.73998812654367,0.06689673992480293
4.5650712782167355,1.4832815729997513,3.1000000000000014,0.6625737860160925,0.7332011035421798,0.060105043637717605
4.426521932034628,1.7525840144499145,3.120000000000001,0.6749525258342899,0.7260852512793502,0.053648782636546516
4.204924579796256,1.978687312443536,3.139999999999999,0.6872572965586163,0.7186475922422579,0.047534328471425275
3.917290834587603,2.153548860306614,3.16,0.6994759548659412,0.7108954665024121,0.04176771537040516
3.5860410442524637,2.275770848467961,3.1799999999999997,0.7115964424156909,0.702836524471993,0.03635463428440664
3.2360679774998022,2.3511410091698965,3.1999999999999993,0.7236067977499789,0.694478719353816,0.031300427270932386
2.8915716219762255,2.392116082631053,3.219999999999999,0.7354951680981163,0.6858302992924842,0.02661008222210337
2.5730929028199023,2.4162950690232545,3.24,0.747249821073871,0.6768997992344608,0.02228822794221004
2.2951402299975703,2.444076103325569,3.26,0.758859156253912,0.6676960325051109,0.01833912957964241
2.064714967720089,2.495811658756254,3.2799999999999994,0.7703117166260287,0.6582280821110121,0.01476668441770439
1.8809128073359211,2.588854381999827,3.299999999999999,0.7815961998958183,0.6485052917761239,0.011574418028464617
1.735625927939737,2.7349088416571257,3.3200000000000003,0.7927014696406856,0.6385372567206602,0.008765480793441905
1.6152171688461812,2.938069123023621,3.34,0.803616566300148,0.6283338141917653,0.00634264479455986
1.5029037356095052,3.1938330120122194,3.3599999999999994,0.814330717991598,0.6179050337553385,0.004308301078437138
1.3814928164777172,3.489252555465244,3.379999999999999,0.8248333511408521,0.6072612073585881,0.0026644572967123195
1.236067977499794,3.804226065180615,3.4000000000000004,0.8351141009169891,0.5964128391731242,0.0014127357247343487
1.0562390698299255,4.113779570317839,3.42,0.8451628214611904,0.5853706352286059,0.0005543716605724392
0.8376372369578358,4.3910481705093325,3.4399999999999995,0.8549695958994756,0.574145492847185,9.021220592630996e-05
0.5824503069880157,4.610568928244017,3.459999999999999,0.8645247461294605,0.562748489889164,2.0715430139217617e-05
0.29893594432519416,4.751450772519834,3.4800000000000004,0.8738188423714752,0.5511908738204857,0.0003459499181382775
1.3523071769642403e-14,4.8,3.5,0.8828427124746188,0.5394840506128421,0.0010655947027498947
-0.29893594432516796,4.751450772519845,3.5199999999999996,0.8915874509685642,0.5276395734873571,0.0021789395814555412
-0.5824503069880064,4.610568928244021,3.539999999999999,0.900044427852184,0.5156691315129518,0.0036848858172756852
-0.8376372369578309,4.3910481705093565,3.5600000000000005,0.9082052971103156,0.5035845380706474,0.0055819472230906
-1.0562390698299182,4.113779570317847,3.58,0.9160620049502761,0.49139771919518016,0.007868251628327494
-1.2360679774997878,3.804226065180622,3.5999999999999996,0.9236067977499789,0.4791207018054475,0.010541542726567467
-1.38149281647772,3.489252555465272,3.619999999999999,0.9308322297098246,0.46676560183539106,0.01359918230224726
-1.5029037356094972,3.1938330120122487,3.6400000000000006,0.937731170200806,0.4543446122770319,0.017038152834258736
-1.6152171688461727,2.9380691230236446,3.66,0.9442968108015772,0.44186999114745984,0.02085506047387824
-1.7356259279397224,2.7349088416571368,3.6799999999999997,0.9505226720175453,0.42935404939165056,0.025046138394086717
-1.8809128073359067,2.5888543819998375,3.6999999999999993,0.9564026096753471,0.41680913873304903,0.02960725050697235
-2.0647149677200827,2.4958116587562573,3.7200000000000006,0.9619308209864079,0.4042476394839091,0.03453389554554911
-2.2951402299975543,2.4440761033255614,3.74,0.9671018502735924,0.3916819483274231,0.03982121150596494
-2.5730929028198943,2.4162950690232567,3.76,0.9719105943553006,0.3791244660836874,0.04546398044571168
-2.891571621976216,2.3921160826310555,3.7799999999999994,0.9763523075816902,0.36658758547159326,0.05145663363310602
-3.2360679774997747,2.3511410091698868,3.8000000000000007,0.9804226065180615,0.354083678878709,0.05779325704295464
-3.5860410442524286,2.275770848467967,3.8200000000000003,0.9841174742707772,0.34162508615122683,0.06446759719298112
-3.9172908345875705,2.153548860306625,3.84,0.9874332644514523,0.3292241024160246,0.07147306731525944
-4.204924579796235,1.9786873124435551,3.8599999999999994,0.9903667047754989,0.3168929659468602,0.07880275385656028
-4.426521932034635,1.75258401444991,3.880000000000001,0.9929149002914757,0.3046438460866716,0.0864494233011921
-4.565071278216738,1.4832815729997446,3.9000000000000004,0.9950753362380551,0.29248883123790825,0.09440552930960577
-4.611274506086642,1.1839740588392915,3.92,0.9968458805257912,0.2804399169327317,0.10266322016572334
-4.564898666272636,0.8708009926854337,3.9399999999999995,0.9982247858412321,0.2685089939948801,0.11121434652563189
-4.4349791172700765,0.5602681553061999,3.960000000000001,0.9992106913713086,0.25670783680485404,0.12005046946000518
-4.238832689652913,0.26668474821340943,3.9800000000000004,0.9998026241462927,0.2450480916800277,0.129162868782306
-4.000000000000002,4.408728476930473e-15,4.0,1.0,0.23354126538114262,0.13854255165455562
-3.7453811377732844,-0.2356394080210968,4.02,0.9998026241462927,0.22219871375652103,0.14818026146218083
-3.50193849324575,-0.44239771320822974,4.040000000000001,0.9992106913713088,0.21103163053521234,0.15806648694917735
-3.293399339556862,-0.6282495240003659,4.0600000000000005,0.9982247858412321,0.2000510362801364,0.16819147160456915
-3.1373907829424077,-0.8055450384795487,4.08,0.9968458805257912,0.18926776751212104,0.1785452232909045
-3.043380852144491,-0.9888543819998339,4.1,0.9950753362380551,0.1786924660155605,0.18911752410529248
-3.011689955071383,-1.1924124070275122,4.120000000000001,0.9929149002914754,0.1683355683362614,0.1998979404632375
-3.033691839931915,-1.4275470200770342,4.140000000000001,0.9903667047754989,0.15820729548182855,0.21087583339533086
-3.0931626057633164,-1.7004805325070926,4.16,0.9874332644514525,0.14831764283476706,0.22204036904662694
-3.168582359763688,-2.0108435113640075,4.18,0.9841174742707774,0.13867637028824845,0.2333805293683474
-3.236067977499784,-2.351141009169883,4.200000000000001,0.9804226065180615,0.12929299261427227,0.24488512299136753
-3.272534320230098,-2.7072758353584576,4.220000000000001,0.9763523075816902,0.12017677007373267,0.2565427962707491
-3.2586561165514034,-3.0600817784062704,4.24,0.9719105943553006,0.11133669927766131,0.2683420444904147
-3.1812366174319497,-3.3876729160457337,4.26,0.9671018502735924,0.10278150430866032,0.2802712232169106
-3.0346769502694317,-3.6682942834500585,4.280000000000001,0.9619308209864077,0.09451962811128284,0.2923185597910611
-2.8213692110038684,-3.883281572999749,4.300000000000001,0.9564026096753471,0.08655922415986815,0.3044721649461586
-2.5509884318922436,-4.01971456235899,4.32,0.9505226720175455,0.07890814841204419,0.316720044541239
-2.2388122239675505,-4.0723843173272805,4.34,0.9442968108015775,0.0715739515558477,0.3290501113978476
-1.9033305969110814,-4.0447834077159115,4.360000000000001,0.9377311702008062,0.06456387155810824,0.34145019722862274
-1.563503604999725,-3.948959331640757,4.379999999999999,0.9308322297098253,0.05788482652144782,0.353908064645927
-1.2360679774997927,-3.804226065180609,4.399999999999999,0.9236067977499791,0.05154340785694381,0.3664114192386818
-0.9332800274889234,-3.6348857187112045,4.42,0.9160620049502763,0.04554587377921085,0.37894792170544955
-0.661413279727975,-3.4672498353201724,4.4399999999999995,0.9082052971103161,0.039898143130292545,0.39150520003184575
-0.4202155615264353,-3.3263486822718025,4.459999999999999,0.9000444278521842,0.034605789538481216,0.4040708617002195
-0.20338821190933284,-3.232763054906337,4.48,0.8915874509685651,0.029674035917817723,0.4166325059195762
-9.407268155488756e-15,-3.2,4.5,0.8828427124746194,0.02510774931370734,0.42917773586365854
0.20338821190931336,-3.2327630549063304,4.52,0.8738188423714759,0.020911436099734407,0.4416941709051141
0.420215561526414,-3.326348682271791,4.539999999999999,0.8645247461294614,0.017089237530414535,0.45416945883368326
0.661413279727951,-3.4672498353201573,4.559999999999999,0.8549695958994765,0.013644925654275487,0.4665912880463415
0.9332800274889148,-3.6348857187112062,4.58,0.8451628214611908,0.010581899591301892,0.4789473996973631
1.2360679774997836,-3.8042260651806115,4.6,0.8351141009169896,0.007903182178414703,0.4912255997963184
1.5635036049996935,-3.948959331640746,4.619999999999999,0.8248333511408525,0.005611416986294949,0.503413771242075
1.9033305969110716,-4.044783407715915,4.640000000000001,0.8143307179915991,0.0037088657104992874,0.51549988578091
2.2388122239675345,-4.072384317327273,4.66,0.8036165663001489,0.0021974059394388678,0.5274720158769496
2.5509884318922342,-4.019714562358996,4.68,0.7927014696406867,0.0010785293014268671,0.539318346483203
